# 3D point list with one line of data per point:
#   POINT3D_ID, X, Y, Z, R, G, B, ERROR, TRACK[] as (IMAGE_ID, POINT2D_IDX)
# Number of points: 415, mean track length: 3.4107292539815592
5074 -2.2162273484889661 1.5913426882751212 6.0058870545389791 106 129 135 0.51887429715846256 6 678 8 628 7 623
5075 -2.1566250356739003 1.59185494124334 5.9905562961605563 118 135 139 0.69060025861813445 6 679 8 634 7 624
5076 -2.8506960812622384 1.6605361523125681 5.8625373137441601 61 86 90 0.47520621170718375 6 692 8 652 7 625
5077 -2.0509639497081857 1.5999553996035483 5.999740717058252 175 176 180 0.76441981923728874 6 684 8 641 7 627
5078 -1.6099714823000602 1.5674756998060559 6.0470667953278499 154 88 113 0.77440599972384649 6 680 8 629 7 628
5079 -1.6099714823000602 1.5674756998060559 6.0470667953278499 154 88 113 0.77440599972384661 8 630 7 629 6 681
5080 -2.5949868539244094 1.6496418283863044 5.9002191776709516 107 141 143 0.38264297463775687 6 696 8 653 7 630
5081 -2.5949868539244094 1.6496418283863044 5.9002191776709516 107 141 143 0.38264297463775687 6 697 8 654 7 631
5082 -2.4733186816497632 1.6562622605625663 5.9144389672644815 100 119 125 0.48469796005643323 6 704 8 660 7 632
5083 -1.826793241238146 1.6066832846007821 5.9840943185340194 160 105 126 0.85728771156947436 6 693 8 649 7 633
5084 -2.1832667732272522 1.6441950443463509 5.9383071235437628 157 152 156 0.54881707763731091 6 707 8 659 7 640
5085 -2.4336874885232764 1.6745923944598744 5.8909436488694968 143 148 151 0.77934758123015613 6 712 8 672 7 646
5086 -2.4336874885232764 1.6745923944598744 5.8909436488694968 143 148 151 0.77934758123015613 6 713 8 673 7 647
5087 -1.7822336132547292 1.6208223154382326 5.9925841949507115 190 177 183 0.71990667881584613 6 705 8 658 7 648
5088 -2.3747780193578087 1.6877394860255746 5.8909167351432457 149 144 149 0.44816369896983438 6 724 8 678 7 655
5089 -2.4088974566478467 1.704116544403012 5.8687262507704947 152 139 146 0.59864159880058432 6 733 8 682 7 659
5090 -2.1371900519346703 1.6995113118979277 5.8883734980160449 173 160 167 0.72434170409973886 6 737 8 684 7 664
5091 -2.8079547320287777 1.7619019151397144 5.7703956734687347 117 118 119 0.54333635918621026 6 747 8 6738 7 665
5092 -2.1659516158379377 1.7118900420846042 5.8749979260247525 179 170 175 0.47501311390927975 6 739 8 688 7 666
5093 -2.2738924095719222 1.7387367390194184 5.8353610545352117 167 161 165 0.51313647222549108 6 749 8 698 7 672
5094 -1.6861321832329907 1.6901631864136948 5.9189852110083843 195 182 190 0.7880503797564673 6 741 8 687 7 673
5095 -2.3015464688556002 1.745607931888506 5.8178649065416357 149 143 147 0.52032360958892176 6 752 8 699 7 674
5096 -1.9328817312361144 1.720061777598461 5.8670860334225026 184 179 183 0.5764636969610073 6 750 8 694 7 675
5097 -1.8897042425619182 1.7143760051136803 5.893023736836847 184 178 182 0.38171472229575198 6 748 8 693 7 676
5098 -2.4159203747969196 1.7637683530659363 5.7983706535335262 148 130 138 0.19927589594664433 6 756 8 706 7 679
5099 -2.055321634813887 1.7402439871114259 5.8430808742329496 181 181 183 0.5367502993538783 6 755 7 681 8 701
5100 -2.2028878599472987 1.768616478493737 5.8418146165356495 176 171 177 0.56152823858830025 6 765 8 713 7 686
5101 -2.4457527708462381 1.7984489780685464 5.7352309121698966 145 145 147 0.72023632256138193 6 772 7 688 8 720
5102 -1.8611273504953785 1.7514215534000066 5.841573284703717 131 77 101 0.66282318232014337 6 764 8 708 7 689
5103 -1.5290558245824235 1.7278490360101033 5.8753072846008534 177 126 145 0.52415135969159043 6 761 8 705 7 690
5104 -2.5329111817548426 1.8276877550134307 5.7256503532567997 133 130 133 0.24671741007390516 6 777 8 724 7 694
5105 -2.3724336445181491 1.8330174506440799 5.7266803742205932 157 129 143 0.48163829395335434 6 780 8 731 7 695
5106 -2.3239476342341088 1.8337737153019014 5.7245780818550287 118 77 95 0.54280729301905273 6 781 8 734 7 696
5107 -2.5497569407416054 1.8542529342726122 5.6787251114765596 126 106 115 0.86190622478389278 6 788 8 737 7 697
5108 -1.805063279402072 1.7998914305381821 5.7805950865443965 162 109 127 0.55371089122455563 6 779 8 726 7 700
5109 -1.8540785932268942 1.8051670536825932 5.7757106864657857 157 104 124 0.50821828625913978 6 6593 8 728 7 701
5110 -1.8930162791198244 1.8161279885346828 5.7663198570759873 159 106 126 0.4985996354801368 6 787 8 733 7 704
5111 -1.7993759955577961 1.8406789408426847 5.7544110191364419 142 89 109 0.75349497385918063 6 792 8 740 7 711
5112 -2.1856785729913528 1.876976875539071 5.6709333162482505 154 102 121 0.46103893040001759 6 795 8 745 7 712
5113 -2.5178692151049451 1.904810893486298 5.6290798668022815 114 73 87 0.49486545718071762 6 798 8 750 7 714
5114 -1.4934454919959566 1.8367693863267009 5.7783689545034234 186 133 153 0.47824477999662557 6 793 8 744 7 716
5115 -2.4587225182293633 1.9384033617178045 5.604849224327447 119 75 92 0.39670267225102845 6 806 8 755 7 723
5116 -2.4228061325294417 1.9801063867968112 5.5768741825654375 126 79 96 0.64113837748849545 6 813 8 763 7 731
5117 -1.4745097580214006 1.9305620531501313 5.707727114282755 200 200 202 0.7231389815280016 6 6615 7 739 8 6784
5118 -1.7403254893094109 1.9621510250375809 5.6440272909272657 200 200 202 0.39133918424880987 6 818 8 768 7 741
5119 -2.1203299310306636 1.9950370699033519 5.5823300364127277 168 138 150 0.40682281869869391 6 828 8 778 7 743
5120 -2.0804648799756942 1.9903581857231563 5.5737443893110745 169 139 152 0.28564913750907822 6 822 8 774 7 744
5121 -1.8791168292865679 1.9806350709632061 5.6129509642914126 196 195 200 0.47540917313888248 6 825 8 772 7 747
5122 -2.0486179910984825 2.0168629481021014 5.5641769006001871 181 182 186 0.37863637995958371 6 837 8 784 7 753
5123 -2.4593948586882184 2.0716448965564038 5.4720931965581476 142 128 135 0.40851218239641701 6 853 8 799 7 760
5124 -1.7682668812858509 2.0250060119773656 5.5808662352148453 203 193 201 0.45772706523953027 6 848 8 793 7 766
5125 -1.9739950191989466 2.0455607091505548 5.5250984340966642 186 184 187 0.23513691146892027 6 854 8 798 7 768
5126 -2.1143123174342624 2.0645551913307001 5.5006232001513675 180 180 182 0.29065703604492715 6 857 8 802 7 771
5127 -2.0072953215500426 2.0695929622763294 5.5034681106088303 181 173 178 0.34552980638521996 6 6639 8 807 7 776
5128 -2.3755080416590313 2.1080045650210226 5.417422792065886 135 134 138 0.59623681263742057 6 874 8 821 7 779
5129 -2.0891810139180129 2.0918771070133468 5.4724947376315143 177 167 175 0.3478689407680336 6 872 8 819 7 780
5130 -2.1220399051616785 2.0995102060170816 5.4764279834014076 173 167 171 0.2755648595888569 6 878 8 822 7 782
5131 -2.459658335910702 2.1275723961208897 5.4118452461970765 150 151 155 0.41496309377309509 6 887 8 831 7 783
5132 -2.459658335910702 2.1275723961208897 5.4118452461970765 150 151 155 0.41496309377309509 6 888 8 832 7 784
5133 -1.8947179503439424 2.0915493948434052 5.4861528987768962 116 66 78 0.29236825641225284 6 879 8 823 7 788
5134 -1.7994616747678591 2.1075362139487246 5.4963035973969872 191 180 185 0.24912366220831114 6 892 8 6815 7 793
5135 -1.9482442634842017 2.1325351356048698 5.4507374679475866 195 181 188 0.35229244427189182 6 898 8 844 7 797
5136 -2.1538629876696418 2.1578459232901204 5.4021701017682222 136 85 104 0.3985802755408116 6 6655 8 857 7 800
5137 -2.0938888571077992 2.1599026504743168 5.4032177017913217 171 160 166 0.33279621721483238 6 909 8 860 7 802
5138 -1.9487490401537164 2.1885065620940387 5.3981402554131215 173 181 186 0.34678842798959669 6 931 8 881 7 812
5139 -2.2599738626239301 2.2325907369622882 5.3066544654230494 161 169 172 0.30836121258961097 6 955 8 893 7 822
5140 -2.2599738626239301 2.2325907369622882 5.3066544654230494 161 169 172 0.30836121258961097 6 956 8 894 7 823
5141 -2.2202134468641161 2.2300617104835188 5.3211320299324623 159 167 170 0.33012324078277006 6 952 8 895 7 824
5142 -2.4007126185211982 2.2820254953759265 5.2590657005678665 129 147 152 0.49111574249854112 6 6692 8 6875 7 836
5143 2.7757547056717931 1.9112108632320073 5.4057586449692288 90 106 105 0.40021376511164641 6 914 8 827 7 855
5144 2.8610508328844313 1.910155057706491 5.3555738513901545 128 138 137 0.82066331200142151 6 917 8 830 10 7010 7 857
5145 -2.2992640628548635 2.33534410995758 5.1881670799297446 115 149 151 0.89641825146123155 6 1048 10 932 7 868
5146 2.9005271956111827 1.9470861975580296 5.3532870371503218 117 114 112 0.28660575029106899 6 945 8 849 7 877
5147 2.48297817568166 1.9833905798302205 5.4521695727390229 75 81 77 0.28114303825003012 6 951 8 864 7 879
5148 2.6185012122802962 1.9921277543441571 5.3866871212058669 72 92 90 1.0444229255747068 6 6684 10 1369 7 888 9 2452
5149 -2.3347941426111194 2.3948811007719946 5.1413885290297623 143 157 158 0.57392113938919287 6 1104 8 1018 7 904
5150 3.0397913936334549 1.9821737326906828 5.3411729563427413 143 113 121 0.40378205237698089 6 981 8 879 7 907
5151 -2.2271352138018901 2.3890009004687149 5.1609056430346145 154 160 160 0.53396217403798663 6 1100 8 1016 7 909
5152 2.7452795927697053 2.0162694996255088 5.3515282355379084 148 148 148 0.55627786726083361 8 6850 7 916 6 6693 9 8329
5153 -2.3363658545434589 2.4114652507930634 5.1232502424507427 115 119 122 0.66571138456467371 6 1126 8 1032 7 917
5154 -2.3363658545434589 2.4114652507930634 5.1232502424507427 115 119 122 0.66571138456467371 6 1127 8 1033 7 918
5155 2.8469251704610858 2.0165972558301326 5.3453782332436601 102 66 82 0.68485548105900573 8 888 7 921 9 2709
5156 2.6894635488542598 2.0315931522804451 5.3701305242774167 141 143 142 0.1814694973485507 6 1008 8 898 7 923
5157 2.7868799935213224 2.026762646021675 5.3523724276193025 150 142 145 0.40200420382093466 6 6697 8 6856 7 924
5158 2.8487231858333635 2.034495187025831 5.3529403796694988 146 120 127 0.33252075531148068 6 1019 8 6861 7 929
5159 2.8487231858333635 2.034495187025831 5.3529403796694988 146 120 127 0.33252075531148068 6 1020 8 6862 7 930
5160 3.1447709956724914 2.0182733758294105 5.3653827114366335 125 119 123 0.60574591626663221 6 1021 7 939 9 8562
5161 2.6782432033458443 2.0707887241623624 5.3727545981643647 141 137 138 0.30258778141422871 6 1046 8 6873 7 946 9 2623
5162 2.5122751965005312 2.0961792232982384 5.391814765165897 125 137 137 0.4622095423193755 6 1059 8 933 7 948 9 2504
5163 2.2597629749233552 2.1252532222606932 5.4392226083213755 62 82 83 0.3801430704935933 6 6719 8 6886 7 955
5164 2.7954125030090546 2.081138956035641 5.35847387053962 108 54 73 0.53457296151987399 8 932 10 1523 7 956 9 2766
5165 3.0974077378424569 2.0670451619262558 5.3715596741229357 96 71 79 0.62488117606925919 6 1065 8 930 7 962 9 8582 10 1604
5166 2.6840801666596339 2.1176152867915752 5.3888503565528145 133 109 117 0.71075707123905574 6 1079 8 956 7 969
5167 2.6627945723988904 2.1218551084833792 5.4046136606492778 112 72 83 0.43068542867518605 6 1083 8 958 7 971
5168 2.6378586845347605 2.1319532784148629 5.4022287189664606 135 115 122 0.1624610471386336 6 1098 8 966 7 977
5169 2.3975334950017335 2.1638976505372791 5.4287821506389475 36 37 41 0.3489516463636444 6 1119 8 981 7 985
5170 2.2289980503067461 2.1757149654381411 5.2802718869611986 86 56 64 0.83397103802696027 6 1131 8 991 10 7038 7 989
5171 2.5274227581219 2.1598426562013349 5.4233734510470537 125 117 122 0.32619099626766546 6 1122 7 990 8 986
5172 2.5791586673634992 2.1535686659114153 5.4132280979323157 124 113 121 0.54815441099663587 6 1120 8 982 7 991 9 8357
5173 2.9791728231377284 2.1247651914718886 5.4237840679829068 132 111 121 0.36638883327711008 6 1107 8 972 7 992
5174 1.9879607366977841 2.2245577676507233 5.2514913721660132 111 69 83 0.26363902052887456 8 1029 7 1013 6 1160
5175 2.6657110319654977 2.1836565810025537 5.4698210976678983 123 102 111 0.38601019339171777 6 1148 8 1005 7 1015
5176 -1.7252597421683857 2.5128453234104389 4.9968039025612354 170 112 136 0.37151982772471853 6 1240 8 1135 7 1017
5177 -1.2576398537534774 2.5169800450788711 5.1230937340737714 149 91 113 0.29892913731952497 6 1257 7 1030
5178 2.3477717284053883 2.2410082254237658 5.260396771351429 86 42 57 0.40031871912957745 6 1186 10 1548 7 1034
5179 1.888613314998099 2.282694369843226 5.2680673864460443 117 89 101 0.70464998390926548 10 1417 7 1036 9 2277
5180 2.7507294852905377 2.2510053894003259 5.3468753665495425 82 53 58 0.28425268344679167 6 1201 8 1065 7 1051
5181 1.9403353818991609 2.3311656101086142 5.269427656698455 109 65 80 0.44571111926789264 6 1246 8 1112 10 1495 7 1061
5182 1.8780446367530526 2.3441040115184446 5.2840336188187349 102 61 75 0.42849477741988951 6 1250 8 1118 7 1064
5183 2.5489805599406949 2.2887748407599395 5.2411046026017001 120 73 88 0.4358617048728009 6 1235 8 1095 7 1065
5184 2.7830680449768641 2.2824952438592327 5.304085717369218 81 54 62 0.25447219092372575 6 1237 8 1096 7 1073
5185 2.6650878290281668 2.2901531410740872 5.2620832117930574 119 79 90 0.87444911543596682 6 6793 8 1105 10 7202 7 1074
5186 3.2781701831278633 2.2573598589400232 5.4776252183782654 138 118 122 0.9542134362400031 6 1227 8 1082 7 1078 9 3525
5187 2.6040813335935855 2.3025088545566152 5.2511697151145524 120 73 88 0.85753970246326194 10 7192 7 1080 9 8526
5188 3.330612103602419 2.2615517395978135 5.4984859953898715 137 128 129 0.54968225601395426 6 1234 8 1086 7 1086
5189 3.2935540519792026 2.2678991199532068 5.4750741652507084 73 64 67 1.0486447374057672 6 1241 8 1093 7 1091 9 8972
5190 3.0826189671201982 2.2958308706229187 5.5399461171105582 71 30 44 0.65942057057461423 6 1251 8 1108 7 1097
5191 2.8823055766981791 2.3009223134930399 5.3185990231676588 110 99 98 0.35364157460940021 6 1259 7 1099 8 1119
5192 3.3945550727344944 2.2840037630863796 5.5053323127254137 98 96 97 1.002259772052666 6 1260 8 1113 7 1107
5193 2.8469573363329173 2.3250545275001722 5.2796949669431559 149 149 148 0.5816453751529439 6 1280 8 1137 7 1118
5194 2.8455117232179594 2.3248810861442366 5.2744419149167747 149 149 148 0.57937140039146207 10 7270 7 1119 9 8720
5195 3.2499013788863023 2.3293791067989864 5.4372606402246744 107 103 103 1.5856396867037741 6 1297 8 1143 7 1134 9 9035
5196 3.1541081001648466 2.3469323778004756 5.4624386413621693 138 130 131 0.83288004427431095 6 1308 8 1154 10 7345 7 1137
5197 2.9746967829953124 2.3570561062917856 5.3004702289267778 142 138 137 0.36626441726007614 6 1317 8 1163 7 1139
5198 2.0701757465596278 2.4421258926286038 5.2913913347607453 99 57 71 0.23173729699349863 10 1643 7 1155 9 2652
5199 2.8985466589560351 2.3780296852055658 5.265303970836297 111 109 111 0.40383959023754185 6 1337 8 1184 7 1158
5200 3.3108107510443308 2.3584248565654296 5.4200649764714841 117 113 112 0.61949879810749886 6 1328 8 1171 7 1159
5201 3.307747758047646 2.3568990695080845 5.4096385906744944 117 113 112 0.98951223356925455 6 1329 8 1172 7 1160 9 9122
5202 1.8889944976119604 2.4735755274425841 5.281483495950229 77 47 55 0.45425601895760365 6 1364 8 1232 7 1166
5203 2.4297194532997666 2.4305288232200772 5.25472926362667 126 83 100 0.30948322690384983 6 1356 8 1209 7 1169
5204 3.4404657463788624 2.3621966502668621 5.4246233730748985 82 61 68 0.55942382180169858 10 7425 7 1174
5205 2.8561429011375004 2.4017041479173851 5.2303684602578038 147 142 146 0.63912888465325013 6 1357 8 1206 7 1179 9 3362
5206 1.7877750883357866 2.494083206615227 5.1768879607100979 43 20 26 0.99813375679688965 10 7142 7 1184 9 12038
5207 1.6790420374610684 2.5042872779820802 5.1277608169372488 59 31 38 0.65515912431303736 6 1393 10 7124 7 1189 9 8226
5208 2.0091102683886906 2.4893407282008377 5.2712450379867741 92 59 70 0.91226666479822671 6 1386 8 1254 10 1677 7 1192 9 2671
5209 2.870066840474744 2.4151999315942922 5.2266022004152095 118 76 94 0.65481814626989332 6 1368 8 1223 7 1193 9 8865
5210 2.870066840474744 2.4151999315942922 5.2266022004152095 118 76 94 0.65481814626989332 6 1369 8 1224 7 1194 9 8866
5211 2.2121652503287139 2.4877107154384221 5.2616151778268065 123 83 92 0.23954838796559041 10 1774 7 1203 9 8470
5212 2.0353876609148163 2.505525573883459 5.2577000817975623 89 56 65 0.61338384959850678 6 1404 8 1275 7 1209
5213 3.2117328444390854 2.4271743543585353 5.3994530080211334 130 121 124 0.720625807726468 6 1382 8 1236 7 1219
5214 1.3921629078461562 2.5644883339447895 5.1605210887417892 84 54 64 0.5359642357142641 6 1442 10 1569 7 1224
5215 2.3029096163522862 2.4987813651583823 5.2518537704406736 141 125 126 0.43101398841508848 6 1415 8 1282 7 1225
5216 2.352178484718626 2.4917939981875032 5.2550335939493262 155 145 148 0.78677683014359912 6 6871 8 1279 7 1226 9 8561
5217 1.4851059738927077 2.5657861591906359 5.1450141175168449 91 57 70 0.42722403585825197 10 1594 7 1233 9 2364
5218 2.6271599456340624 2.4828628664943913 5.2486731396956259 159 155 154 0.39419383079370968 6 6873 7 1236 9 8758
5219 3.3800831913159342 2.429478854088523 5.3372891038044843 135 128 126 0.97316951185225054 6 1395 8 1255 7 1239 9 12542
5220 -1.2705147683798588 2.7741681817312478 4.8500750929318226 158 196 199 0.46746888777766776 6 6946 8 1473 7 1240
5221 1.7824941589586782 2.5575088650931717 5.0515644358167915 131 127 124 0.185219166284919 6 6901 8 1337 7 1255
5222 1.78246728398218 2.5574945065970973 5.053317302403471 131 127 124 0.58694797872364513 10 7200 7 1256 9 8335
5223 3.2931062480518514 2.4608979300749754 5.3277884989470241 149 128 133 0.7520752013399078 6 1429 8 1285 10 7478 7 1261
5224 2.4170858128680579 2.5345201100750701 5.232839143954493 149 143 145 0.96873512207283263 6 1467 8 1328 10 7318 7 1274 9 8663
5225 3.0338693189974566 2.4792330037080919 5.1799784446032984 121 124 123 0.60123007111915316 8 1314 7 1275 9 3744
5226 2.3330374220348555 2.5507063465856681 5.2126832095750464 147 140 140 0.74900003926461201 6 6912 7 1290 8 7080
5227 2.2460094150514398 2.5630060583479075 5.1990350917126342 128 123 122 0.31679550876824375 6 1491 8 1361 7 1295
5228 1.3206486934876538 2.6310653485610893 4.9779534084055763 85 78 73 1.0060566204073671 10 7147 7 1309 9 8173
5229 3.1391037011330218 2.5054321695518755 5.1676117106056623 99 131 128 0.38306014388090109 6 1488 8 1339 7 1313
5230 3.2893381142872888 2.5081965279989671 5.2739794135808582 110 115 115 1.2748046393745522 6 1487 10 10831 7 1320
5231 2.9602989231645096 2.5306022279524378 5.20164444842686 145 154 153 0.99124832145557973 6 6928 8 7089 7 1325
5232 3.1663384503817116 2.514665674599998 5.1905900337046669 59 88 87 0.21503457378217763 6 1502 8 1359 7 1326
5233 3.2257119274675099 2.5108780504550321 5.2026947899422282 53 63 62 0.60914789037984107 6 1501 8 1356 7 1327
5234 3.3204634763972924 2.510139684382191 5.2847066988239142 113 129 128 0.84790082591829596 6 1492 8 1341 7 1328
5235 1.3604676504595319 2.6594813147477807 4.9488243422729479 126 120 120 0.69371772586040104 6 1589 10 1683 7 1345 9 8217
5236 1.4551789222178999 2.6608524233531572 5.0028384743747365 92 81 82 0.66509448955363903 6 1591 10 1723 7 1346 9 8260
5237 3.0132954491108306 2.5491209222526106 5.1771278476328719 139 156 158 0.41310636825454 6 1532 8 1392 7 1350
5238 3.0132954491108306 2.5491209222526106 5.1771278476328719 139 156 158 0.41310636825454 6 1533 8 1393 7 1351
5239 2.1505502592781496 2.6100081631396601 5.0259358961024052 76 70 68 0.46441649697840021 6 1564 8 1443 7 1355
5240 1.7705188143149178 2.6421059774466138 4.974495224484949 118 66 79 0.79210856983593481 10 1827 7 1358 9 2755
5241 2.259785022769123 2.6127407591073482 5.0732883729968696 108 97 95 0.17039523807117077 6 1570 8 1448 7 1359
5242 2.8030138068210473 2.5844960786682978 5.2128412102412955 140 144 143 0.55618986789331792 6 1551 8 1421 7 1362
5243 2.1261367033451322 2.619341855548424 4.9989503095446883 135 132 120 0.77187297298898927 6 1585 8 1467 10 7339 7 1363 9 8592
5244 2.6587528818090131 2.5934679073544928 5.1705607385097947 147 149 147 0.44401405192246296 6 1557 8 1429 7 1364
5245 2.768578615638932 2.5857955415464144 5.1843465742576136 136 137 138 0.87197019122320663 8 1420 10 7444 7 1365 6 1552
5246 2.5023044828029581 2.6126270108777989 5.1801459671258092 114 111 111 0.89288065121354754 6 1571 8 1444 7 1372
5247 2.8500515887244529 2.5880821981152295 5.2094668655281051 133 150 151 0.58795596207366729 6 1558 8 1430 7 1374
5248 2.7164389252122314 2.5985030711517316 5.1693978089390846 126 134 132 0.48345494985221799 6 1574 8 1445 7 1375
5249 1.4892770071324462 2.6978743042312137 4.9702399581695671 83 50 57 1.1723636423113197 10 7244 7 1390 9 12055
5250 3.3004072734758161 2.5601956681284292 5.1202796313092529 77 86 83 0.9281876934355916 6 1575 7 1397 8 1432
5251 2.6076770574705557 2.6301689102357013 5.1338892161706324 83 102 101 2.1847252864623625 6 1624 8 1497 7 1403 9 8946
5252 3.3679038707231221 2.5719228476294163 5.1394741599508187 116 118 115 0.40661462132447523 6 1604 8 1456 7 1410
5253 2.8511805642260084 2.6204062140785789 5.1531400652321446 74 99 98 0.3052844291293903 6 6991 8 7154 7 1420
5254 -0.08255316178816173 2.8356560223395482 4.7941102079248541 173 119 135 0.67545319814442928 6 1756 8 1702 7 1430
5255 2.0409438892440388 2.6739168621344387 4.9289758861582982 120 146 145 0.4036793371785774 6 1682 8 1574 7 1434
5256 2.3052714968628689 2.6612636113573567 4.987415684722329 89 109 107 0.13119826825796013 6 1679 7 1440 8 1567
5257 3.4632514103758414 2.5835944332891985 5.1420005173051777 120 116 113 0.87644243884824102 6 1633 8 1490 10 10909 7 1446
5258 3.4632514103758414 2.5835944332891985 5.1420005173051777 120 116 113 0.87644243884824102 6 1634 8 1491 10 10910 7 1447
5259 3.1987923631634896 2.6023675433121403 5.0964373397369815 148 160 157 0.52230246481110154 6 1650 7 1451 8 1517
5260 3.3800978731363216 2.5901904293846685 5.1086118053950997 130 125 122 0.57048371328607184 6 1643 8 1510 7 1452
5261 2.2001572514795829 2.6721181619705616 4.9307967976906202 58 88 87 0.23206091038479429 6 1685 8 1586 7 1453
5262 2.2001572514795829 2.6721181619705616 4.9307967976906202 58 88 87 0.23206091038479429 6 1686 8 1587 7 1454
5263 2.6942082685664128 2.6507926129502599 5.1099371213181239 105 137 134 0.62466392347875677 8 1552 7 1455 9 9057 10 2197
5264 2.7291005316097183 2.6535640794256721 5.1157158342841651 63 94 96 0.47709669501721103 8 1563 7 1459 6 1681
5265 2.3005853236937113 2.6826787693161869 4.9416488016660631 59 81 79 0.97601635011262411 6 1715 7 1480 8 7205
5266 2.9057275433599674 2.6555247769601031 5.1340624156371746 58 91 93 0.72648737423701171 6 1688 8 1575 10 7553 7 1481 9 12508
5267 2.1740083801616219 2.6996770363018046 4.9056063366209282 122 155 154 0.063737109096974484 6 1731 8 1632 7 1487
5268 3.1544651233514567 2.6422509343869134 5.1029761814839301 133 136 137 0.54048076523272448 6 1697 8 1577 7 1491
5269 2.7405853040130088 2.6782508443214854 5.0725372732126326 103 139 139 0.36995580006815992 6 1720 8 1605 7 1497
5270 1.7755770758475002 2.748154223585451 4.9397202539814016 155 166 164 0.12246462492285211 8 1680 7 1501 9 2923
5271 2.3125857157654992 2.7119791922906722 4.9180324436619518 63 89 88 0.48783232508257496 6 1773 8 1667 7 1515
5272 1.4034750436203032 2.7799453929212712 4.8125094941492117 89 96 94 0.56303396487825941 8 1743 10 1867 7 1520 9 8347
5273 2.5477768865480668 2.7129896816943235 5.0406540180970838 65 91 88 0.75969649248862769 6 1764 8 7238 7 1525
5274 2.2353230201483685 2.725721838284636 4.896255696203875 121 157 159 0.36950646250238101 6 1792 8 1691 7 1531
5275 3.2100803343539082 2.6694116724386019 5.0798463637889535 87 54 70 1.1443555627087054 6 1740 8 1627 10 2466 7 1535 9 9518
5276 2.5283895450548957 2.7229118119843156 5.0227027735453538 101 123 124 0.67582781252973267 6 1789 10 7522 7 1541 9 12408
5277 3.0249941608912705 2.6927667244931546 5.0899406289097353 147 147 147 0.47283140293129233 6 1770 8 1655 7 1555
5278 0.62700319014817418 2.8707847628940906 4.8376443434543166 184 178 178 0.82913308627652638 8 1813 7 1559 9 2172
5279 2.115463527086169 2.7529490340932465 4.894853648384232 114 149 149 0.64843338769105041 6 1817 8 1739 7 1565 9 8761
5280 2.5609836011830653 2.728903266215799 5.0278245450960082 102 128 127 0.52337083215144453 6 1796 8 1699 7 1566 9 9060
5281 2.2348097538284399 2.741671882423331 4.8947546915699034 78 109 112 0.84644793910114124 6 1819 8 1729 7 1571 9 3354
5282 2.9127483411642685 2.7104888960403959 5.0760908897584081 155 155 156 0.41800925837185082 6 1793 8 1683 7 1574
5283 3.1711389450827276 2.6906820236001332 5.0752268170025783 155 139 144 1.8542680852854998 6 1784 8 1664 7 1582 9 9522
5284 2.4443277365185794 2.738134729613801 4.9393681462642549 63 72 71 0.27652498876289666 6 1820 8 1730 7 1587
5285 2.8477106709929934 2.7221419559702791 5.0602330723802984 149 151 150 0.58248429146538527 6 1803 8 1706 7 1590 9 9280
5286 3.1359326613697602 2.7093665734612999 5.1122231910859277 153 138 145 0.78187213468121997 6 1801 8 1692 7 1599
5287 2.4713769243903427 2.7530054723553379 4.9420089483290264 123 128 126 0.24597528953091763 10 7541 7 1606 9 9048
5288 1.3845170580638 2.8313144055312782 4.7476354879296183 125 146 147 0.68699002935970921 10 7338 7 1618 9 8389
5289 2.3143643887913528 2.7674996987210339 4.8773436333543163 162 170 170 0.32474226238211285 6 1862 8 1788 7 1620
5290 2.3141911798521315 2.7672492093704326 4.8781732239969546 162 170 170 0.56594880043547624 6 1863 7 1621 9 8930
5291 2.4025302057164901 2.7613117225415849 4.8824653508059113 148 148 146 0.17739992537576491 6 1864 8 1785 10 2258 7 1622
5292 0.63524024551416036 2.9163322544655159 4.7555348466258875 157 99 118 1.2099365558926796 10 7215 7 1644 9 8107
5293 0.32646879646919741 2.9431696631353161 4.6982085414388095 213 205 204 0.42732760053105939 10 7163 7 1652 9 2085
5294 2.9018398400345871 2.7659425256863805 5.0383362717429341 150 116 128 0.56891945815734957 6 7153 8 7321 7 1653 9 12606
5295 2.7645355545037642 2.7817197357789425 5.0226576061324382 155 134 143 0.80480342707549501 6 1897 8 1805 7 1660
5296 2.2441553344675857 2.8099787046487958 4.8642360577884656 175 177 176 0.55514551230504228 6 7182 8 7364 7 1668 9 3514
5297 2.3869398577557899 2.8103259424355516 4.8506700463444323 125 83 97 0.14012658884470958 6 1956 8 1871 7 1684 9 3686
5298 3.1728877825819537 2.77523073514564 5.0520561359674634 159 136 143 0.72958934803106301 6 7176 8 1826 7 1691
5299 3.169357887625103 2.7747440779884256 5.0389242082890933 159 136 143 1.3154814938970547 10 7746 7 1692 9 12778
5300 1.8600391577584785 2.8648210312578897 4.8652465574874029 131 156 153 0.23449752974576518 10 2158 7 1699 9 3183
5301 3.2881731069702567 2.7643775615563162 5.0282153002347698 154 150 152 0.86292013153317682 8 1827 7 1703 9 4803
5302 3.4336528882309549 2.7505045263980139 5.0122716979647404 122 123 124 1.3291508007933521 6 1918 7 1704 9 9927
5303 2.4719037275578057 2.8198722351445591 4.8456047691507793 115 58 75 0.31452045673738721 10 2365 7 1715 9 3813
5304 -0.061488566208638934 2.995193722924415 4.509241866776013 194 188 188 0.68554736369679914 6 2131 10 1607 7 1722 9 1986
5305 2.2203062707636891 2.8461342983442259 4.8532075695712189 142 140 141 0.16660647405697449 6 2001 8 1938 7 1724 9 3561
5306 2.0989736891194495 2.8584042902531834 4.8542224269267891 174 174 174 0.17676581024687166 6 2017 8 1948 7 1727
5307 3.1390559710200425 2.7942137194027095 5.028528968730769 149 144 144 0.43251440972599237 6 1967 8 1865 7 1728
5308 1.9545112216371048 2.8738102760966182 4.8564130978888338 157 169 167 0.36627719711999623 8 1967 7 1732 9 3291
5309 2.3874260440492536 2.8335889377226344 4.8351090083140349 174 126 142 0.28566932472906997 6 2004 8 1939 7 1733
5310 3.1614025103529135 2.7973724420177581 5.0357404888798731 115 71 86 0.42487058520607546 6 7200 8 1878 7 1737
5311 3.5790243899435907 2.7547266234268846 4.9998024562585757 141 139 140 0.5905270395644121 6 1944 8 1844 7 1738
5312 3.5790243899435907 2.7547266234268846 4.9998024562585757 141 139 140 0.5905270395644121 6 1945 8 1845 7 1739
5313 2.5452116578222328 2.8276528792086215 4.8558034882780605 116 55 70 0.3848018133931812 6 2006 8 7409 7 1741
5314 2.7060735189443226 2.8265636083420467 4.9349377391036118 92 50 60 0.35451991914645803 6 1996 8 1925 7 1745
5315 3.3823959964734858 2.7814575712198519 5.0190838254364962 150 152 149 0.67302366105952649 6 1970 8 1873 7 1748
5316 3.4364331773266281 2.7747225116758334 5.0019811921722059 121 121 122 0.95608651873784822 8 1874 7 1749 9 9981
5317 2.6249098263752035 2.8346191366964706 4.8886512473416142 148 127 129 0.33362329967590226 6 2020 8 1950 7 1759
5318 3.0615606698696189 2.8115507987051753 4.9905739049660491 152 150 148 0.53255747326091141 6 7216 8 7396 10 7754 7 1760
5319 3.3124811757538155 2.7909929846413348 5.0175382794043868 156 158 157 1.210201213164751 6 1987 8 1882 7 1761 9 4940
5320 3.4165219853149136 2.7785232677911411 4.9973042069034337 149 149 149 1.3731208840892539 6 7206 8 7373 7 1762 9 9960
5321 1.7869534446898918 2.9000251125666181 4.8085340570176989 133 135 132 1.0336585114609746 10 7475 7 1770 9 8708
5322 2.7801904173744982 2.8440199807707471 4.9377024982452875 156 151 149 0.62899008736619333 6 2042 8 1976 7 1786 9 9401
5323 3.1207598870997844 2.8234451985619202 4.9817958799044542 147 147 143 0.67021868503245907 6 2027 7 1790 8 1951
5324 2.0499455855205526 2.8992013551697271 4.8307726068909114 174 168 170 0.89157189183747876 6 2091 7 1793 9 3461
5325 2.952775642023926 2.8411597271550266 4.982259718100396 150 149 147 0.39321514192528123 6 2043 8 1969 7 1796
5326 2.8911082184335939 2.8521545707894456 4.9506063249921572 148 148 146 0.6259810685792494 6 2068 7 1810 9 9510
5327 2.7837292373212943 2.8590098600158287 4.9174384826402271 123 119 118 0.89965295795368139 6 2073 8 2011 7 1822 9 9438
5328 1.0167981294826736 2.9921813390925553 4.719912932464104 157 160 153 0.84533406675286715 6 2175 7 1838 9 2629
5329 2.800232437109718 2.8644291310041061 4.9139379352411217 148 147 145 0.86163897926509281 6 2084 7 1841 8 2022
5330 2.7757467647804797 2.8766394088241811 4.9075925572095809 156 156 154 0.48069327820566876 10 2630 7 1856 9 4342
5331 2.9559795255916348 2.8645526790429092 4.9391734208406053 155 154 154 0.7385926624819712 6 2100 8 2034 10 2718 7 1857 9 9611
5332 3.4598034140216116 2.8264567051056031 4.9432621129182195 131 108 114 0.9026139339799043 6 2085 8 2012 10 8003 7 1866
5333 3.047993597278071 2.8694041137843169 4.9243043578788521 134 119 122 0.59877674561739136 6 2127 8 2058 7 1882
5334 2.6647741832747927 2.8957981507170922 4.8436958408845818 151 156 153 0.52720406942802256 6 2152 8 2098 7 1890
5335 2.705266367240196 2.8962066450587964 4.8603398312535946 151 151 149 0.41226057591264209 6 2153 8 2099 10 7727 7 1892
5336 3.2155635716204611 2.8656085450996764 4.9556523998582698 147 138 139 0.95745546988575481 6 7288 8 7468 10 7913 7 1896
5337 1.1850025606327261 3.0057143683189569 4.69616203828613 151 177 174 1.2754808673945892 10 2059 7 1899 9 2816
5338 -0.71676908173858811 3.1391170512697855 4.449387698626178 187 146 160 0.20628040253083635 8 2340 10 1545 7 1904 9 1879
5339 2.7386183448374286 2.9064621459156261 4.8586541476013512 149 148 146 0.72899662092652862 6 2172 8 2121 10 7760 7 1913
5340 2.6646509372121989 2.9105956571335652 4.827404104483902 96 97 101 0.40958491575795025 6 2178 8 2128 7 1920
5341 2.2541536352050735 2.9505219634890394 4.802369651681051 168 162 162 0.35999254592895991 6 2227 8 2174 7 1932
5342 0.93402575128017873 3.0541132925701944 4.647240278694416 151 170 168 0.76401131816921353 10 2024 7 1950 9 2661
5343 3.265015003933657 2.8893899313421545 4.9044579264136576 120 74 87 1.2203845374556359 10 7993 7 1954 9 10011
5344 3.4972739748553199 2.8715772336302692 4.8890274891827907 116 73 84 2.0541597622253795 6 2184 8 2119 10 8092 7 1960
5345 2.8387793056481661 2.9351976291283712 4.8427497307543828 129 93 103 0.58602176683808838 6 2255 8 2190 7 1982
5346 2.3042722254688002 2.9733646674425698 4.7708155665931793 169 169 168 0.41140771854306374 6 2289 8 2242 7 1985
5347 2.581965400441999 2.9502547574516256 4.7744566644520683 161 156 153 0.25388598790717659 6 2276 8 2220 7 1986
5348 2.5822241101173575 2.9505841546582352 4.774865584214008 161 156 153 0.46244101590268727 6 2277 8 2221 10 7765 7 1987 9 9413
5349 0.55432063735578907 3.1026991639843722 4.5792885450240846 149 173 177 1.2367647979096241 10 1938 7 1995 9 2421
5350 2.5496515474273176 2.9612569412190091 4.7686089200097177 167 162 164 0.20877174070888546 6 2292 8 2249 7 2001
5351 2.5494468388550589 2.9610306164847366 4.7674700724229595 167 162 164 0.18905018513828387 6 2293 8 2250 7 2002 9 4247
5352 3.4177188766332098 2.9044389583105046 4.8701274203066403 114 70 83 0.1999554329752373 6 2256 8 2186 7 2008
5353 -1.172986840221081 3.2231303694558036 4.330996832359614 151 97 113 1.113156339079838 10 1493 7 2012 9 1803
5354 0.00255005449580768 3.1372193411316434 4.4245363873406527 164 164 165 0.42877397885720425 8 2404 10 1807 7 2015 9 2121
5355 3.1206313379939039 2.9378465559509843 4.8307442779851684 124 80 93 0.62980901949004953 6 2296 8 2243 7 2030
5356 2.3528875769052897 2.9956916594492786 4.7600542546936353 162 161 159 0.39777908973209664 6 2328 8 2301 10 2613 7 2032
5357 1.7368290307635639 3.0140789873407252 4.5060646686614358 169 165 162 1.8809256499993909 10 2360 7 2045 9 3392
5358 0.34799974681738616 3.1350576664147765 4.4678182618680244 129 160 163 0.31745359635789289 10 1913 7 2050 9 2322
5359 2.7309720649763269 2.9745666723774207 4.7834512898962007 135 87 101 0.74936141531718237 10 7866 7 2055 9 9602
5360 3.1019122873263396 2.9475513605276995 4.8243062738821996 85 42 56 1.3412757842629996 6 2312 8 2263 7 2056
5361 2.584371075313626 2.9852731100050889 4.7503381141749426 136 91 109 0.64264884139787481 6 2337 8 2308 7 2059
5362 2.5660997201234101 2.991905004393439 4.7445195817617511 150 119 127 1.4985266250522946 6 7415 10 2774 7 2069 8 7606 9 9474
5363 -0.075372227943735548 3.1563128416260238 4.2782130228117961 148 179 180 1.0861408420109406 8 2494 7 2082 9 2101
5364 0.49177148814088106 3.1382095668945653 4.4673098587911619 156 179 180 0.74419515936699299 8 2438 10 1986 7 2084 9 2440
5365 1.6655673520734202 3.0397512358427115 4.4642951354520308 187 177 179 0.43831569135894249 6 2421 8 7677 7 2092
5366 2.4504878861359782 3.0288394496825233 4.719901307040792 73 35 48 0.44662427304199043 6 2395 8 2368 7 2114
5367 3.0045335349517073 2.9963284758909974 4.7780326015738659 112 68 81 0.69624864000191899 6 2383 8 2354 10 3129 7 2124 9 5037
5368 3.0049173369069138 2.9968363654764767 4.7790638975161857 112 68 81 0.56583333643833189 6 2384 8 2355 10 3130 7 2125
5369 3.6709394223843694 2.9496403381408784 4.8164321639996048 110 70 81 0.92838135963051149 6 2369 8 2325 7 2143
5370 3.6676257426080459 2.9497347154140048 4.8014407645874551 110 70 81 1.318120093357473 10 8332 7 2144 9 10700
5371 3.6534883644670364 2.9535980954087671 4.8106684692715742 64 28 38 0.85577136351469518 6 2373 8 2328 7 2146
5372 3.64907662924815 2.9526082458564034 4.7945866053148398 64 28 38 1.8207854367410827 6 2374 8 2329 10 3563 7 2147
5373 3.4320198482847002 2.9738417155238794 4.7947251349924072 112 68 81 1.2316588752047593 6 2388 10 3426 7 2157 8 2351 9 10432
5374 3.4351841786745374 2.9752026352289227 4.8060621953885674 112 68 81 0.98584666243534702 6 2389 8 2352 7 2158
5375 -0.014280466207098991 3.2061127994972618 4.2912014838810801 87 111 113 1.4147974063501714 6 2586 10 7309 7 2177
5376 -0.014280466207098991 3.2061127994972618 4.2912014838810801 87 111 113 1.4147974063501714 6 2587 10 7310 7 2178
5377 2.9911905034932 3.0277744392433048 4.740604165252396 116 70 83 0.88828803961544178 6 2442 10 8084 7 2198
5378 -0.0074756592677774972 3.2319502399413609 4.2818502135810448 62 85 91 1.9085608802781435 10 1923 7 2223 9 8102
5379 0.5092068530303685 3.2106643867117151 4.3649149297708538 198 187 191 0.93652719556441066 6 2627 8 7819 7 2249
5380 3.1341398817852801 3.0491446768682042 4.7461954151704422 74 34 45 0.8309055157523515 6 2503 8 2451 7 2266
5381 3.1312244918295811 3.0479557849272663 4.7292846552655607 74 34 45 1.0788116596959745 6 2504 10 8189 7 2267
5382 -0.18626244376359052 3.2433119159594996 4.1601363691864961 171 190 194 0.54537450444738134 6 7638 8 2720 7 2268
5383 3.1480013096310655 3.0532205257590079 4.7334525880062168 109 69 80 0.89690118323891244 6 7530 8 7726 7 2282 9 10249
5384 3.2943700908449194 3.0480328633581073 4.7702744957386463 110 66 79 0.65259715019977405 6 2509 8 2468 7 2284
5385 3.1560384337866489 3.0756473027396667 4.7382166817349978 62 29 36 0.56304050746838163 6 2548 8 2518 7 2307
5386 2.5797833908715093 3.0922027993257672 4.5170595525010233 74 31 43 0.89275032678649513 6 2591 8 7769 7 2314
5387 2.685584856687945 3.0847439703846629 4.5036092592124417 75 40 46 0.71285491888867414 6 2598 8 2580 7 2333
5388 -1.6520385685934234 3.4091150937588952 4.1320630854529403 143 130 137 1.3056270613289671 6 2860 10 1552 7 2337 9 1782
5389 2.5354377098421397 3.1030618764324829 4.4900131877077989 137 85 98 0.99920594773324012 10 8042 7 2346 9 9708
5390 0.032387732251476828 3.2892661041536102 4.2621307906304349 78 82 81 0.45397425009801234 10 2013 7 2348 9 2313
5391 1.945032194242043 3.1435987121822597 4.3669246968039994 141 93 109 0.9252829620883366 6 2688 7 2361 9 3947
5392 1.96583003241085 3.1475567975346204 4.3806506371323293 82 38 51 0.49820912820364799 10 2802 7 2375 9 3984
5393 3.3797145783115128 3.0917038956074983 4.7028805632113091 89 56 63 0.61947827967355706 6 2619 10 8401 7 2390
5394 -0.60212392405516624 3.3655519681327699 4.2424073233154296 178 190 194 0.32950608674789783 8 2889 7 2394
5395 2.8272471274132878 3.100287360277973 4.4755268636636716 130 120 119 0.71854392816759693 6 7624 7 2399 8 7824
5396 2.6711254241121014 3.1162261181047861 4.4608779613625051 100 80 87 0.44540886042521749 6 2690 8 2667 7 2402
5397 2.7244881889507639 3.1113947047122781 4.4550318584227808 155 149 149 0.22853517973750515 6 2691 8 2668 7 2406
5398 0.020533389947460075 3.3129418998442697 4.1897061631243133 92 76 79 1.3492931960331507 8 2879 7 2414 9 8179
5399 3.662020467757062 3.0895333125204885 4.6930477111132625 52 43 42 0.65953031931148776 6 2657 8 7808 7 2440
5400 2.3094351767707351 3.180291102115413 4.50773321481108 113 56 75 0.45611885677707276 6 2751 10 3086 7 2445 9 4493
5401 3.5407873030863857 3.1090849051751293 4.6997013269024199 99 83 84 0.63257390754027309 6 2684 8 2650 7 2454
5402 2.6313972343554699 3.1416194068704639 4.4253135623280473 160 154 154 0.21669485672408495 6 2752 8 2736 7 2468
5403 0.10108459884680909 3.3464525259884259 4.2714419192618367 160 151 154 0.60813641917185934 10 2113 7 2473 9 8232
5404 3.0929878957735708 3.1067939428308216 4.4316270147646817 78 53 56 0.94209842188422976 6 2736 7 2485 8 2718
5405 2.6058309396627912 3.1585802237988498 4.4395130092544957 135 130 134 0.41440254332859855 6 2774 8 2769 7 2491 9 4968
5406 2.8688898889889871 3.1350376569174117 4.4084273838174495 80 28 45 0.27380182241070067 6 2775 8 2764 7 2506
5407 2.9794663452539716 3.124898591909937 4.3677537822122892 96 68 69 1.3562931611779228 6 7708 8 2777 7 2522
5408 2.7091675275281468 3.1740017304399575 4.3995182572346971 125 119 123 0.25528451115680167 6 2834 8 2828 7 2546
5409 2.7091675275281468 3.1740017304399575 4.3995182572346971 125 119 123 0.25528451115680167 6 2835 8 2829 7 2547
5410 2.7433841133390318 3.1775923875018925 4.3860657753714509 114 56 77 0.60630131741577709 6 2856 8 2850 10 8284 7 2562
5411 2.7894324946242595 3.1702385426769757 4.3726853735435869 163 130 141 0.37959593557252158 6 2857 8 2841 10 3543 7 2563
5412 3.6777906356567232 3.0897599018570214 4.3856240371038782 78 94 91 0.90009661255694728 6 2807 8 2781 7 2565
5413 3.0329345177640352 3.1449055743117023 4.3511668980820204 152 152 152 0.58934875886017668 6 7747 8 7928 7 2568
5414 2.8327096899017792 3.1691702023565749 4.3628059622556714 116 44 66 0.31028855329495292 6 2870 8 2853 7 2583
5415 2.5821015459017742 3.2042398762466284 4.4128619945357306 143 143 143 0.88424901891869734 6 2886 7 2586 8 2874
5416 1.0173787609648104 3.336312344488868 4.3325266317182098 166 130 140 0.59359613418870538 10 2476 7 2588 9 3219
5417 3.5710867403421154 3.1114394091174353 4.3669651387518416 84 104 100 0.68349286007780152 6 2842 8 2817 7 2597
5418 3.6832364936895003 3.1027492432520316 4.3734212551054119 49 59 60 0.71267133535562666 6 2837 7 2598 8 2812
5419 3.6950830424740615 3.0952133482661792 4.34984400691852 111 117 115 0.76453766568657067 6 7742 8 7916 7 2599
5420 3.7560461129135461 3.0956738989708525 4.3486234968186883 69 69 66 1.3437807266454502 6 2846 8 7919 10 8870 7 2605
5421 3.8403526578374287 3.0899877438046066 4.3496090931187181 64 52 56 0.8047870704687593 6 7748 7 2611 8 7924
5422 3.3040835756479057 3.1439231071778511 4.3515756412881021 54 76 74 0.97889772413761822 8 2864 10 8636 7 2620 6 2887
5423 2.6628073711614775 3.2168081372098891 4.3937440405031767 133 101 114 0.4007655272032587 6 2947 8 2940 7 2630
5424 3.3573387456246158 3.1421883369683798 4.3465533556166669 89 119 117 0.37666236899077993 8 2878 7 2632 6 2902
5425 3.4849332369515027 3.137023541128535 4.3795133040710965 92 116 116 0.61995301831369132 6 7771 8 7946 7 2633
5426 1.0265865287769518 3.3544452543770866 4.3166396973705545 143 91 108 0.75480726040671797 10 2534 7 2639 9 3256
5427 2.6900444672827635 3.2142429486012962 4.3788544258851365 120 72 88 0.68704584020482917 6 7795 8 7985 10 3542 7 2645
5428 1.3263826416664648 3.3414678084605676 4.3685669244811169 79 26 44 0.59695701713069993 8 8056 10 2695 7 2651 9 8965
5429 2.9231911088444642 3.1906966360818627 4.3460148468662823 110 110 112 0.45722548639116734 6 2951 8 2941 7 2658
5430 3.3291083897375793 3.1454027546908123 4.3063655861559456 61 90 90 0.48535412514704679 6 2930 8 2909 7 2667
5431 3.5179749119535959 3.1387410253320875 4.3481914940589856 46 74 77 0.72596652190084532 6 2920 8 2883 7 2672
5432 3.5179749119535959 3.1387410253320875 4.3481914940589856 46 74 77 0.72596652190084532 6 2921 8 2884 7 2673
5433 3.432142661967204 3.1511042500754916 4.3404879265913028 92 114 115 0.51540853388819308 6 2941 7 2678 8 2923
5434 3.7963603817690617 3.1106868817150932 4.3001243414666215 75 41 55 0.84761287333237745 6 2925 8 2885 7 2690
5435 3.6202095737454694 3.1387429630031023 4.3187098209162542 118 129 130 1.0588826992122826 6 2954 8 2933 10 8858 7 2697
5436 3.6739333587814853 3.1305530543924749 4.2960856376025411 125 124 126 0.78293263560626103 6 2956 8 2935 7 2710
5437 2.9736287930954699 3.2035975421909244 4.3160332842066493 123 129 129 0.50218092064897346 6 3010 8 3006 7 2715
5438 3.3878320942862725 3.1665784437405646 4.3148762270303633 84 121 122 0.57237111521823802 6 2985 8 2981 7 2716
5439 2.441397845445977 3.290608777145295 4.4481938732962734 159 149 150 0.31353725029410606 10 3436 7 2728 9 5000
5440 2.6667139395948523 3.253719072277014 4.3805685146588589 164 138 144 0.095191747649202393 6 3056 8 3054 7 2730
5441 1.2911457882467672 3.3682229640254131 4.3108764108497422 131 81 92 0.66872185617626834 6 3149 10 2739 7 2734 9 3583
5442 -0.98514988378742985 3.5270955893398392 4.047479277871207 127 162 164 0.83510791501301773 6 3304 7 2746
5443 1.729496536126764 3.3417567477759813 4.3459884831049322 144 89 108 0.69479157832712912 8 3154 10 3025 7 2751 9 4068
5444 2.9677338010509149 3.2209616248909425 4.3201493854558306 153 161 163 0.31138479894587195 6 3062 8 3055 7 2755
5445 2.9677338010509149 3.2209616248909425 4.3201493854558306 153 161 163 0.31138479894587195 6 3063 8 3056 7 2756
5446 3.3562764226262867 3.1842726668736256 4.296883077277494 95 130 133 0.53211834337007458 6 7854 8 3030 7 2761
5447 3.5780203303549274 3.1602214013031489 4.2821294945928381 80 86 86 1.2481925897693043 6 3021 10 4377 7 2763
5448 2.6279636871620644 3.2791424723138531 4.4024466438227225 161 140 148 0.35322143771994458 6 7890 8 8067 7 2772
5449 3.6537439047836329 3.1561273654799771 4.2766665276306881 85 76 79 1.2561716886473526 6 3030 8 3011 10 8941 7 2781
5450 3.4344447242924034 3.1839645904683826 4.2952553463969494 55 79 79 1.082547146515882 6 3064 8 3037 7 2789
5451 3.6312535758482118 3.1594306107491081 4.2710660183385354 73 68 72 0.68986141347683716 6 3041 8 3028 7 2792
5452 3.5392464245432698 3.1832817025046229 4.310170257223727 88 97 96 1.2055614813389144 8 3057 7 2800 6 7870
5453 3.6394843648255137 3.1684320453167105 4.2641106674804483 127 117 118 0.66776669433794311 6 3076 8 8047 7 2809
5454 3.2080584199608282 3.2153015625051711 4.2921107424661393 97 135 136 0.8378234374889536 6 3104 8 3104 7 2815
5455 3.6188279541418882 3.1722236985601464 4.2646586826116906 88 79 84 1.1723366625289784 6 7877 8 8046 10 4458 7 2817
5456 3.680683094848006 3.1638246368893976 4.2526307751843966 96 63 74 0.75655827318780877 6 7878 7 2818 8 8048
5457 3.0008146438440177 3.2520515496127893 4.3283684903267661 91 115 116 0.8167184414242401 6 3139 8 3136 7 2834
5458 3.0008146438440177 3.2520515496127893 4.3283684903267661 91 115 116 0.8167184414242401 6 3140 7 2835 8 3137
5459 3.8197992486693577 3.1586752392952469 4.2366226266170797 126 95 103 1.0507399979107408 6 3098 10 9071 7 2842
5460 2.5736779761003543 3.3207941132631191 4.4266937987832842 154 128 137 0.58749929821234159 6 3175 8 3181 7 2851
5461 -0.78439943518077404 3.5591300765845051 4.025953221630405 171 178 181 0.4132112055392792 8 8292 7 2885 9 2126
5462 2.6086724129838403 3.3309972196633586 4.4084901736076398 160 104 123 0.20016737017751249 6 3207 8 3212 7 2887
5463 3.7533315319301588 3.1880362835139935 4.2255428062187281 91 50 64 0.75246576359733053 6 3170 8 3155 7 2903
5464 2.6674604247240432 3.334056866311276 4.3890237603836928 147 89 105 0.40693867504415393 6 3235 8 8157 7 2907
5465 3.6107293997222247 3.2116582686025548 4.2389302092283518 92 48 64 0.69727911373784768 6 3186 8 3184 7 2913
5466 0.86967823981528602 3.4529955936270422 4.1273221855120132 158 103 124 0.39617600581339713 10 2684 7 2925 9 3299
5467 3.4707809019707412 3.2336923440436238 4.2441353971950004 137 141 142 0.55751798888612936 6 3210 8 3206 7 2926
5468 3.554287067893549 3.2267525524618961 4.2400541330872397 130 117 122 1.0500533654323772 6 7970 8 8143 7 2927
5469 3.4325651503495616 3.2420534036542059 4.2486498951942595 89 94 99 0.59715779296713734 6 3221 8 3219 7 2939
5470 3.4325651503495616 3.2420534036542059 4.2486498951942595 89 94 99 0.59715779296713734 6 3222 8 3220 7 2940
5471 2.8035720267320579 3.3369517321774897 4.3605119688900924 162 168 168 0.37894832357583946 6 3276 8 3285 7 2957
5472 2.7122674349197151 3.367948594944643 4.3924413946859797 157 158 158 0.428205899176549 6 3314 7 2989 8 8208
5473 3.0676734128395551 3.3070023355605036 4.2826064550450065 64 113 114 0.27521575603498233 6 3295 8 3303 7 2990
5474 1.4502886618361504 3.4489037733763057 4.1825392141818742 93 53 61 1.3616355769295563 10 8033 7 3008 9 9251
5475 2.8326403478507731 3.3629474203445149 4.3639215010096715 145 161 160 0.32754614885609401 6 3338 8 3351 7 3009
5476 2.8326403478507731 3.3629474203445149 4.3639215010096715 145 161 160 0.32754614885609401 6 3339 8 3352 7 3010
5477 2.9467268325485083 3.3441545174848106 4.3285376394832458 110 151 153 0.53972425913760691 6 3340 8 3339 7 3015
5478 3.0408312507803683 3.3392100095773363 4.3151819892083019 48 96 98 0.28213229928537537 6 3355 8 3355 7 3039
5479 3.0408312507803683 3.3392100095773363 4.3151819892083019 48 96 98 0.28213229928537537 6 3356 8 3356 7 3040
5480 3.9599079548187355 3.2183121007548139 4.176206723875115 120 118 123 0.80624081833766392 6 3291 7 3041
5481 1.2613794683676836 3.4622099162222999 4.1071875631524186 97 54 64 1.5207273079483583 10 7978 7 3046 9 12467
5482 0.37720064277938686 3.549858560824477 4.1041048308514698 109 54 73 0.27413939353410327 8 3577 10 2532 7 3052
5483 3.7148454525940298 3.2560209621101817 4.1995542997421555 133 133 135 0.68494280493943061 6 3328 8 3328 7 3062
5484 2.7998084477133003 3.3865079251608168 4.3602155664174163 92 124 126 0.66907435831292927 6 3402 8 3410 7 3068
5485 3.028964341757244 3.3484964956779852 4.2936146056012552 102 140 139 0.15996620221246122 6 3387 8 3395 7 3069
5486 3.7343377162774978 3.2620922119667877 4.2085512306909614 97 98 102 0.78073887713704027 6 3347 8 3341 7 3070
5487 1.6608815972979534 3.4736149141062591 4.2365057234125372 160 156 157 0.99452652112351403 6 3497 7 3084 9 9442
5488 2.4280772347919015 3.3803472494018592 4.1297063713690507 105 140 138 0.18284116053543398 10 8526 7 3096 9 10197
